-1.64837 -0.935095 4.04298 21 28 28
-1.63794 -0.760768 4.13626 13 20 22
-1.62837 -0.58649 4.23258 29 30 26
-1.61662 -0.409756 4.32404 7 12 16
-1.60604 -0.232505 4.41882 28 32 34
-1.59546 -0.0542479 4.51281 7 10 14
-1.67773 -0.846245 3.87028 12 18 19
-1.6672 -0.671852 3.96308 28 31 29
-1.65603 -0.496914 4.05583 15 16 17
-1.64506 -0.320104 4.14785 30 28 25
-1.63585 -0.142294 4.24422 18 13 14
-1.62365 0.0361691 4.33496 34 33 30
-1.70706 -0.756894 3.69632 27 31 30
-1.69478 -0.582268 3.7865 10 16 19
-1.68531 -0.406535 3.88057 30 30 30
-1.67562 -0.229669 3.97507 13 14 17
-1.66296 -0.0526442 4.06434 36 33 32
-1.65399 0.126249 4.16024 9 16 15
-1.73489 -0.667172 3.52032 10 18 20
-1.72603 -0.493268 3.61529 28 30 30
-1.7148 -0.316734 3.70555 14 16 18
-1.70493 -0.140328 3.79966 30 30 30
-1.69432 0.0375899 3.89187 10 16 18
-1.68287 0.216326 3.98342 33 32 32
-1.76672 -0.578375 3.34894 24 30 30
-1.75639 -0.403291 3.44173 13 18 20
-1.74424 -0.227365 3.53044 28 28 27
-1.73323 -0.0498658 3.62124 8 12 16
-1.72324 0.128193 3.71407 30 31 32
-1.71139 0.306961 3.8038 6 12 14
-1.79468 -0.488538 3.17389 12 18 18
-1.78261 -0.31395 3.26441 29 30 30
-1.7724 -0.136834 3.35346 8 14 15
-1.76305 0.0400538 3.44625 26 29 29
-1.75057 0.218314 3.5344 8 14 18
-1.74102 0.397392 3.62796 30 32 31
-1.80117 -0.0476809 3.17848 24 26 26
-1.79175 0.12936 3.26948 5 10 13
-1.78019 0.307855 3.35874 24 30 28
-1.76956 0.487024 3.44935 8 11 14
-1.8392 -0.134483 2.91348 20 24 24
-1.82784 0.0418835 3.0038 8 12 14
-1.81431 0.219752 3.09045 20 24 24
-1.80603 0.397931 3.18212 4 11 12
-1.79721 0.577162 3.27228 21 25 24
0.507083 -1.32709 4.49107 18 14 13
0.522493 -1.14658 4.59008 21 18 15
0.538363 -0.965813 4.68949 18 15 14
0.553816 -0.784925 4.79681 27 20 18
0.569959 -0.60087 4.89668 22 19 16
0.586454 -0.416707 4.99803 24 16 14
0.301725 -1.32377 4.51438 20 14 14
0.317004 -1.14487 4.61336 22 18 16
0.331188 -0.964094 4.71576 24 19 18
0.346712 -0.782532 4.81443 20 19 18
0.361842 -0.598295 4.91217 25 18 16
0.377278 -0.416584 5.02323 22 18 18
0.0987918 -1.31791 4.53086 18 16 14
0.112994 -1.14219 4.63595 22 16 16
0.12761 -0.961382 4.73264 19 15 15
0.141674 -0.780125 4.83101 24 19 19
0.156339 -0.598063 4.93545 21 18 15
0.171034 -0.415088 5.03819 23 16 16
-0.102203 -1.31465 4.55167 16 14 14
-0.0882949 -1.13678 4.64977 18 16 16
-0.074904 -0.957895 4.74719 19 16 16
-0.0616162 -0.776779 4.84694 20 16 16
-0.0474978 -0.596324 4.95042 25 18 17
-0.0338703 -0.413314 5.05047 23 19 18
-0.301798 -1.31072 4.57132 20 16 17
-0.288905 -1.13328 4.66847 22 17 18
-0.276566 -0.956218 4.77089 16 14 14
-0.263007 -0.776017 4.87044 25 17 18
-0.249466 -0.594874 4.96745 22 20 17
-0.236312 -0.413416 5.06789 21 18 16
-0.500124 -1.30717 4.59283 18 16 16
-0.487795 -1.13043 4.68974 20 15 16
-0.474947 -0.951936 4.78446 21 18 18
-0.463007 -0.773284 4.88624 19 16 16
-0.450677 -0.593007 4.98561 24 18 18
-0.438449 -0.412639 5.08917 10 16 17
-0.695116 -1.3017 4.6069 20 16 14
-0.684759 -1.12681 4.70793 18 16 16
-0.672766 -0.94961 4.80543 15 15 14
-0.661157 -0.771014 4.9041 16 16 16
-0.648691 -0.591137 4.99924 16 18 16
-0.635986 -0.410741 5.09782 20 20 22
-0.889798 -1.29752 4.62671 16 14 14
-0.881228 -1.12471 4.73222 14 16 15
-0.869252 -0.946653 4.82442 18 16 16
-0.858434 -0.76846 4.92126 16 16 16
-0.845781 -0.589308 5.01654 21 18 18
-0.834303 -0.409684 5.11536 15 16 17
-0.789898 0.255468 4.87103 16 14 14
-0.823177 0.346373 4.69338 44 50 52
-0.856405 0.437509 4.51109 28 24 20
-0.889478 0.528631 4.33228 56 56 60
-0.92227 0.619225 4.15006 34 34 30
-0.954155 0.710429 3.9701 50 60 64
-0.590474 0.257311 4.85043 44 44 48
-0.625339 0.348545 4.67364 26 22 21
-0.657782 0.439896 4.49217 51 52 54
-0.691299 0.531759 4.31107 32 28 25
-0.722724 0.622476 4.12565 60 60 60
-0.755198 0.713486 3.94373 38 36 30
-0.392148 0.259203 4.8417 24 19 18
-0.424146 0.351243 4.65294 51 50 51
-0.457898 0.443409 4.47157 29 26 22
-0.49055 0.534946 4.28943 52 57 56
-0.524089 0.627022 4.1074 37 38 36
-0.555409 0.717655 3.92177 61 66 66
-0.188327 0.259641 4.81734 42 44 42
-0.222742 0.352702 4.63603 28 26 24
-0.255069 0.444307 4.4476 52 53 53
-0.288906 0.538546 4.26769 34 33 30
-0.321574 0.631057 4.08611 59 62 60
-0.354102 0.722648 3.90083 44 40 36
0.0156455 0.264282 4.79776 28 22 20
-0.0172846 0.356853 4.61586 48 46 46
-0.0519852 0.450008 4.43585 32 30 25
-0.0837573 0.541997 4.24368 54 58 59
-0.117318 0.635542 4.06265 40 40 39
-0.149717 0.727446 3.87652 70 61 57
0.222685 0.266702 4.78113 38 39 42
0.187972 0.360083 4.59544 32 32 28
0.155055 0.453302 4.4115 50 50 50
0.121351 0.545995 4.22141 43 36 31
0.0885103 0.639963 4.0389 66 62 56
0.0555289 0.732355 3.85167 46 46 42
0.430557 0.268655 4.75754 32 28 24
0.397011 0.362607 4.5717 46 48 47
0.362692 0.456698 4.38953 37 35 31
0.329397 0.55054 4.20121 56 54 52
0.295634 0.644324 4.01428 52 44 42
0.26225 0.73771 3.82885 67 61 60
0.641237 0.271508 4.73774 40 38 39
0.606811 0.365772 4.55386 39 36 32
0.572799 0.460238 4.36157 51 50 50
0.538697 0.554899 4.17796 46 42 38
0.505464 0.649135 3.98917 60 56 54
0.471757 0.742866 3.80413 54 49 44
